-474.368016 -675.334895 -25.339244
-475.470255 -673.666641 -25.383929
-476.572495 -671.998386 -25.428615
-477.674734 -670.330132 -25.473300
-478.776973 -668.661878 -25.517985
-479.879213 -666.993624 -25.562671
-480.981452 -665.325370 -25.607356
-482.083691 -663.657116 -25.652042
-483.185931 -661.988862 -25.696727
-484.288170 -660.320608 -25.741412
-485.390409 -658.652354 -25.786098
-486.492648 -656.984100 -25.830783
-487.594888 -655.315846 -25.875468
-488.697127 -653.647591 -25.920154
-489.799366 -651.979337 -25.964839
-490.901606 -650.311083 -26.009525
-492.003845 -648.642829 -26.054210
-493.106084 -646.974575 -26.098895
-494.208324 -645.306321 -26.143581
-495.310563 -643.638067 -26.188266
-496.412802 -641.969813 -26.232951
-497.515042 -640.301559 -26.277637
-498.617281 -638.633305 -26.322322
-499.719520 -636.965050 -26.367008
-500.821760 -635.296796 -26.411693
-501.923999 -633.628542 -26.456378
-503.026238 -631.960288 -26.501064
-504.128477 -630.292034 -26.545749
-505.230717 -628.623780 -26.590434
-506.332956 -626.955526 -26.635120
-507.435195 -625.287272 -26.679805
-508.537435 -623.619018 -26.724491
-509.639674 -621.950764 -26.769176
-510.741913 -620.282510 -26.813861
-511.844153 -618.614255 -26.858547
-512.946392 -616.946001 -26.903232
-514.048631 -615.277747 -26.947917
-515.150871 -613.609493 -26.992603
-516.253110 -611.941239 -27.037288
-517.355349 -610.272985 -27.081974
-518.457588 -608.604731 -27.126659
-519.559828 -606.936477 -27.171344
-520.662067 -605.268223 -27.216030
-521.764306 -603.599969 -27.260715
-522.866546 -601.931715 -27.305401
-523.968785 -600.263460 -27.350086
-525.071024 -598.595206 -27.394771
-526.173264 -596.926952 -27.439457
-527.275503 -595.258698 -27.484142
-528.377742 -593.590444 -27.528827
-529.479982 -591.922190 -27.573513
-530.582221 -590.253936 -27.618198
-531.684460 -588.585682 -27.662884
-532.786700 -586.917428 -27.707569
-533.888939 -585.249174 -27.752254
-534.991178 -583.580920 -27.796940
-536.093417 -581.912665 -27.841625
-537.195657 -580.244411 -27.886310
-538.297896 -578.576157 -27.930996
-540.000000 -576.000000 -28.000000
-540.000000 -576.000000 -28.000000
-540.679231 -574.119053 -27.973876
-541.358462 -572.238105 -27.947751
-542.037693 -570.357158 -27.921627
-542.716924 -568.476211 -27.895503
-543.396155 -566.595263 -27.869379
-544.075386 -564.714316 -27.843254
-544.754617 -562.833369 -27.817130
-545.433848 -560.952421 -27.791006
-546.113079 -559.071474 -27.764882
-546.792310 -557.190527 -27.738757
-547.471541 -555.309580 -27.712633
-548.150772 -553.428632 -27.686509
-548.830003 -551.547685 -27.660385
-549.509234 -549.666738 -27.634260
-550.188465 -547.785790 -27.608136
-550.867696 -545.904843 -27.582012
-551.546927 -544.023896 -27.555887
-552.226158 -542.142948 -27.529763
-552.905389 -540.262001 -27.503639
-553.584620 -538.381054 -27.477515
-554.263850 -536.500106 -27.451390
-554.943081 -534.619159 -27.425266
-555.622312 -532.738212 -27.399142
-556.301543 -530.857264 -27.373018
-556.980774 -528.976317 -27.346893
-557.660005 -527.095370 -27.320769
-558.339236 -525.214422 -27.294645
-559.018467 -523.333475 -27.268520
-559.697698 -521.452528 -27.242396
-560.376929 -519.571581 -27.216272
-561.056160 -517.690633 -27.190148
-561.735391 -515.809686 -27.164023
-562.414622 -513.928739 -27.137899
-563.093853 -512.047791 -27.111775
-563.773084 -510.166844 -27.085651
-564.452315 -508.285897 -27.059526
-565.131546 -506.404949 -27.033402
-565.810777 -504.524002 -27.007278
-566.490008 -502.643055 -26.981154
-567.169239 -500.762107 -26.955029
-567.848470 -498.881160 -26.928905
-568.527701 -497.000213 -26.902781
-569.206932 -495.119265 -26.876656
-569.886163 -493.238318 -26.850532
-570.565394 -491.357371 -26.824408
-571.244625 -489.476423 -26.798284
-571.923856 -487.595476 -26.772159
-572.603087 -485.714529 -26.746035
-573.282318 -483.833582 -26.719911
-573.961549 -481.952634 -26.693787
-574.640780 -480.071687 -26.667662
-575.320011 -478.190740 -26.641538
-575.999242 -476.309792 -26.615414
-576.678473 -474.428845 -26.589290
-577.357704 -472.547898 -26.563165
-578.036935 -470.666950 -26.537041
-578.716166 -468.786003 -26.510917
-579.395397 -466.905056 -26.484792
-580.074628 -465.024108 -26.458668
-580.753859 -463.143161 -26.432544
-581.433089 -461.262214 -26.406420
-582.112320 -459.381266 -26.380295
-582.791551 -457.500319 -26.354171
-583.470782 -455.619372 -26.328047
-584.150013 -453.738424 -26.301923
-584.829244 -451.857477 -26.275798
-585.508475 -449.976530 -26.249674
-586.187706 -448.095583 -26.223550
-586.866937 -446.214635 -26.197425
-587.546168 -444.333688 -26.171301
-588.225399 -442.452741 -26.145177
-588.904630 -440.571793 -26.119053
-589.583861 -438.690846 -26.092928
-590.263092 -436.809899 -26.066804
-590.942323 -434.928951 -26.040680
-591.621554 -433.048004 -26.014556
-592.300785 -431.167057 -25.988431
-592.980016 -429.286109 -25.962307
-593.659247 -427.405162 -25.936183
-594.338478 -425.524215 -25.910059
-595.017709 -423.643267 -25.883934
-595.696940 -421.762320 -25.857810
-596.376171 -419.881373 -25.831686
-597.055402 -418.000425 -25.805561
-597.734633 -416.119478 -25.779437
-598.413864 -414.238531 -25.753313
-599.093095 -412.357584 -25.727189
-599.772326 -410.476636 -25.701064
-600.451557 -408.595689 -25.674940
-601.130788 -406.714742 -25.648816
-601.810019 -404.833794 -25.622692
-602.489250 -402.952847 -25.596567
-603.168481 -401.071900 -25.570443
-603.847712 -399.190952 -25.544319
-604.526943 -397.310005 -25.518195
-605.206174 -395.429058 -25.492070
-605.885405 -393.548110 -25.465946
-606.564636 -391.667163 -25.439822
-607.243867 -389.786216 -25.413697
-607.923098 -387.905268 -25.387573
-608.602328 -386.024321 -25.361449
-609.281559 -384.143374 -25.335325
-609.960790 -382.262426 -25.309200
-610.640021 -380.381479 -25.283076
-611.319252 -378.500532 -25.256952
-611.998483 -376.619585 -25.230828
-612.677714 -374.738637 -25.204703
-613.356945 -372.857690 -25.178579
-614.036176 -370.976743 -25.152455
-614.715407 -369.095795 -25.126330
-615.394638 -367.214848 -25.100206
-616.073869 -365.333901 -25.074082
-616.753100 -363.452953 -25.047958
-617.432331 -361.572006 -25.021833
-618.111562 -359.691059 -24.995709
-618.790793 -357.810111 -24.969585
-619.470024 -355.929164 -24.943461
-620.149255 -354.048217 -24.917336
-620.828486 -352.167269 -24.891212
-621.507717 -350.286322 -24.865088
-622.186948 -348.405375 -24.838964
-622.866179 -346.524427 -24.812839
-623.545410 -344.643480 -24.786715
-624.224641 -342.762533 -24.760591
-624.903872 -340.881586 -24.734466
-625.583103 -339.000638 -24.708342
-626.262334 -337.119691 -24.682218
-626.941565 -335.238744 -24.656094
-627.620796 -333.357796 -24.629969
-628.300027 -331.476849 -24.603845
-628.979258 -329.595902 -24.577721
-629.658489 -327.714954 -24.551597
-630.337720 -325.834007 -24.525472
-631.016951 -323.953060 -24.499348
-631.696182 -322.072112 -24.473224
-632.375413 -320.191165 -24.447100
-633.054644 -318.310218 -24.420975
-633.733875 -316.429270 -24.394851
-634.413106 -314.548323 -24.368727
-635.092337 -312.667376 -24.342602
-635.771567 -310.786428 -24.316478
-636.450798 -308.905481 -24.290354
-637.130029 -307.024534 -24.264230
-637.809260 -305.143587 -24.238105
-638.488491 -303.262639 -24.211981
-639.167722 -301.381692 -24.185857
-639.846953 -299.500745 -24.159733
-640.526184 -297.619797 -24.133608
-641.205415 -295.738850 -24.107484
-641.884646 -293.857903 -24.081360
-642.563877 -291.976955 -24.055235
-643.243108 -290.096008 -24.029111
-643.922339 -288.215061 -24.002987
-644.601570 -286.334113 -23.976863
-645.280801 -284.453166 -23.950738
-645.960032 -282.572219 -23.924614
-646.639263 -280.691271 -23.898490
-647.318494 -278.810324 -23.872366
-647.997725 -276.929377 -23.846241
-648.676956 -275.048429 -23.820117
-649.356187 -273.167482 -23.793993
-650.035418 -271.286535 -23.767869
-650.714649 -269.405588 -23.741744
-651.393880 -267.524640 -23.715620
-652.073111 -265.643693 -23.689496
-652.752342 -263.762746 -23.663371
-653.431573 -261.881798 -23.637247
-654.110804 -260.000851 -23.611123
-654.790035 -258.119904 -23.584999
-655.469266 -256.238956 -23.558874
-656.148497 -254.358009 -23.532750
-656.827728 -252.477062 -23.506626
-657.506959 -250.596114 -23.480502
-658.186190 -248.715167 -23.454377
-658.865421 -246.834220 -23.428253
-659.544652 -244.953272 -23.402129
-660.223883 -243.072325 -23.376005
-660.903114 -241.191378 -23.349880
-661.582345 -239.310430 -23.323756
-662.261576 -237.429483 -23.297632
-662.940807 -235.548536 -23.271507
-663.620037 -233.667589 -23.245383
-664.299268 -231.786641 -23.219259
-664.978499 -229.905694 -23.193135
-665.657730 -228.024747 -23.167010
-666.336961 -226.143799 -23.140886
-667.016192 -224.262852 -23.114762
-667.695423 -222.381905 -23.088638
-668.374654 -220.500957 -23.062513
-669.053885 -218.620010 -23.036389
-669.733116 -216.739063 -23.010265
-670.412347 -214.858115 -22.984140
-671.091578 -212.977168 -22.958016
-671.770809 -211.096221 -22.931892
-672.450040 -209.215273 -22.905768
-673.129271 -207.334326 -22.879643
-673.808502 -205.453379 -22.853519
-674.487733 -203.572431 -22.827395
-675.166964 -201.691484 -22.801271
-675.846195 -199.810537 -22.775146
-676.525426 -197.929590 -22.749022
-677.204657 -196.048642 -22.722898
-677.883888 -194.167695 -22.696774
-678.563119 -192.286748 -22.670649
-679.242350 -190.405800 -22.644525
-679.921581 -188.524853 -22.618401
-680.600812 -186.643906 -22.592276
-681.280043 -184.762958 -22.566152
-681.959274 -182.882011 -22.540028
-682.638505 -181.001064 -22.513904
-683.317736 -179.120116 -22.487779
-683.996967 -177.239169 -22.461655
-684.676198 -175.358222 -22.435531
-685.355429 -173.477274 -22.409407
-686.034660 -171.596327 -22.383282
-686.713891 -169.715380 -22.357158
-687.393122 -167.834432 -22.331034
-688.072353 -165.953485 -22.304910
-688.751584 -164.072538 -22.278785
-689.430815 -162.191591 -22.252661
-690.110046 -160.310643 -22.226537
-690.789276 -158.429696 -22.200412
-691.468507 -156.548749 -22.174288
-692.147738 -154.667801 -22.148164
-692.826969 -152.786854 -22.122040
-693.506200 -150.905907 -22.095915
-694.185431 -149.024959 -22.069791
-694.864662 -147.144012 -22.043667
-695.543893 -145.263065 -22.017543
-696.223124 -143.382117 -21.991418
-696.902355 -141.501170 -21.965294
-697.581586 -139.620223 -21.939170
-698.260817 -137.739275 -21.913045
-698.940048 -135.858328 -21.886921
-699.619279 -133.977381 -21.860797
-700.298510 -132.096433 -21.834673
-700.977741 -130.215486 -21.808548
-701.656972 -128.334539 -21.782424
-702.336203 -126.453592 -21.756300
-703.015434 -124.572644 -21.730176
-703.694665 -122.691697 -21.704051
-704.373896 -120.810750 -21.677927
-705.053127 -118.929802 -21.651803
-705.732358 -117.048855 -21.625679
-706.411589 -115.167908 -21.599554
-707.090820 -113.286960 -21.573430
-707.770051 -111.406013 -21.547306
-708.449282 -109.525066 -21.521181
-709.128513 -107.644118 -21.495057
-709.807744 -105.763171 -21.468933
-710.486975 -103.882224 -21.442809
-711.166206 -102.001276 -21.416684
-711.845437 -100.120329 -21.390560
-712.524668 -98.239382 -21.364436
-713.203899 -96.358434 -21.338312
-713.883130 -94.477487 -21.312187
-714.562361 -92.596540 -21.286063
-715.241592 -90.715593 -21.259939
-715.920823 -88.834645 -21.233815
-716.600054 -86.953698 -21.207690
-717.279285 -85.072751 -21.181566
-717.958515 -83.191803 -21.155442
-718.637746 -81.310856 -21.129317
-719.316977 -79.429909 -21.103193
-719.996208 -77.548961 -21.077069
-720.675439 -75.668014 -21.050945
-721.354670 -73.787067 -21.024820
-722.033901 -71.906119 -20.998696
-722.713132 -70.025172 -20.972572
-723.392363 -68.144225 -20.946448
-724.071594 -66.263277 -20.920323
-724.750825 -64.382330 -20.894199
-725.430056 -62.501383 -20.868075
-726.109287 -60.620435 -20.841950
-726.788518 -58.739488 -20.815826
-727.467749 -56.858541 -20.789702
-728.146980 -54.977594 -20.763578
-728.826211 -53.096646 -20.737453
-729.505442 -51.215699 -20.711329
-730.184673 -49.334752 -20.685205
-730.863904 -47.453804 -20.659081
-731.543135 -45.572857 -20.632956
-732.222366 -43.691910 -20.606832
-732.901597 -41.810962 -20.580708
-733.580828 -39.930015 -20.554584
-734.260059 -38.049068 -20.528459
-734.939290 -36.168120 -20.502335
-735.618521 -34.287173 -20.476211
-736.297752 -32.406226 -20.450086
-736.976983 -30.525278 -20.423962
-737.656214 -28.644331 -20.397838
-738.335445 -26.763384 -20.371714
-739.014676 -24.882436 -20.345589
-739.693907 -23.001489 -20.319465
-740.373138 -21.120542 -20.293341
-741.052369 -19.239595 -20.267217
-741.731600 -17.358647 -20.241092
-742.410831 -15.477700 -20.214968
-743.090062 -13.596753 -20.188844
-743.769293 -11.715805 -20.162720
-744.448524 -9.834858 -20.136595
-745.127755 -7.953911 -20.110471
-745.806985 -6.072963 -20.084347
-746.486216 -4.192016 -20.058222
-747.165447 -2.311069 -20.032098
-747.844678 -0.430121 -20.005974
-748.523909 1.450826 -19.979850
-749.203140 3.331773 -19.953725
-749.882371 5.212721 -19.927601
-750.561602 7.093668 -19.901477
-751.240833 8.974615 -19.875353
-751.920064 10.855563 -19.849228
-752.599295 12.736510 -19.823104
-753.278526 14.617457 -19.796980
-753.957757 16.498404 -19.770855
-754.636988 18.379352 -19.744731
-755.316219 20.260299 -19.718607
-755.995450 22.141246 -19.692483
-756.674681 24.022194 -19.666358
-757.353912 25.903141 -19.640234
-758.033143 27.784088 -19.614110
-758.712374 29.665036 -19.587986
-759.391605 31.545983 -19.561861
-760.070836 33.426930 -19.535737
-760.750067 35.307878 -19.509613
-761.429298 37.188825 -19.483489
-762.108529 39.069772 -19.457364
-762.787760 40.950720 -19.431240
-763.466991 42.831667 -19.405116
-764.146222 44.712614 -19.378991
-764.825453 46.593562 -19.352867
-765.504684 48.474509 -19.326743
-766.183915 50.355456 -19.300619
-766.863146 52.236403 -19.274494
-767.542377 54.117351 -19.248370
-768.221608 55.998298 -19.222246
-768.900839 57.879245 -19.196122
-769.580070 59.760193 -19.169997
-770.259301 61.641140 -19.143873
-770.938532 63.522087 -19.117749
-771.617763 65.403035 -19.091625
-772.296994 67.283982 -19.065500
-772.976224 69.164929 -19.039376
-773.655455 71.045877 -19.013252
-774.334686 72.926824 -18.987127
-775.013917 74.807771 -18.961003
-775.693148 76.688719 -18.934879
-776.372379 78.569666 -18.908755
-777.051610 80.450613 -18.882630
-777.730841 82.331561 -18.856506
-778.410072 84.212508 -18.830382
-779.089303 86.093455 -18.804258
-779.768534 87.974402 -18.778133
-780.447765 89.855350 -18.752009
-781.126996 91.736297 -18.725885
-781.806227 93.617244 -18.699760
-782.485458 95.498192 -18.673636
-783.164689 97.379139 -18.647512
-783.843920 99.260086 -18.621388
-784.523151 101.141034 -18.595263
-785.202382 103.021981 -18.569139
-785.881613 104.902928 -18.543015
-786.560844 106.783876 -18.516891
-787.240075 108.664823 -18.490766
-787.919306 110.545770 -18.464642
-788.598537 112.426718 -18.438518
-789.277768 114.307665 -18.412394
-789.956999 116.188612 -18.386269
-790.636230 118.069560 -18.360145
-791.315461 119.950507 -18.334021
-791.994692 121.831454 -18.307896
-792.673923 123.712401 -18.281772
-793.353154 125.593349 -18.255648
-794.032385 127.474296 -18.229524
-794.711616 129.355243 -18.203399
-795.390847 131.236191 -18.177275
-796.070078 133.117138 -18.151151
-796.749309 134.998085 -18.125027
-797.428540 136.879033 -18.098902
-798.107771 138.759980 -18.072778
-798.787002 140.640927 -18.046654
-799.466233 142.521875 -18.020530
-800.145463 144.402822 -17.994405
-800.824694 146.283769 -17.968281
-801.503925 148.164717 -17.942157
-802.183156 150.045664 -17.916032
-802.862387 151.926611 -17.889908
-803.541618 153.807559 -17.863784
-804.220849 155.688506 -17.837660
-804.900080 157.569453 -17.811535
-805.579311 159.450400 -17.785411
-806.258542 161.331348 -17.759287
-806.937773 163.212295 -17.733163
-807.617004 165.093242 -17.707038
-808.296235 166.974190 -17.680914
-808.975466 168.855137 -17.654790
-809.654697 170.736084 -17.628665
-810.333928 172.617032 -17.602541
-811.013159 174.497979 -17.576417
-811.692390 176.378926 -17.550293
-812.371621 178.259874 -17.524168
-813.050852 180.140821 -17.498044
-813.730083 182.021768 -17.471920
-814.409314 183.902716 -17.445796
-815.088545 185.783663 -17.419671
-815.767776 187.664610 -17.393547
-816.447007 189.545558 -17.367423
-817.126238 191.426505 -17.341299
-817.805469 193.307452 -17.315174
-818.484700 195.188399 -17.289050
-819.163931 197.069347 -17.262926
-819.843162 198.950294 -17.236801
-820.522393 200.831241 -17.210677
-821.201624 202.712189 -17.184553
-821.880855 204.593136 -17.158429
-822.560086 206.474083 -17.132304
-823.239317 208.355031 -17.106180
-823.918548 210.235978 -17.080056
-824.597779 212.116925 -17.053932
-825.277010 213.997873 -17.027807
-825.956241 215.878820 -17.001683
-826.635472 217.759767 -16.975559
-827.314702 219.640715 -16.949435
-827.993933 221.521662 -16.923310
-828.673164 223.402609 -16.897186
-829.352395 225.283557 -16.871062
-830.031626 227.164504 -16.844937
-830.710857 229.045451 -16.818813
-831.390088 230.926398 -16.792689
-832.069319 232.807346 -16.766565
-832.748550 234.688293 -16.740440
-833.427781 236.569240 -16.714316
-834.107012 238.450188 -16.688192
-834.786243 240.331135 -16.662068
-835.465474 242.212082 -16.635943
-836.144705 244.093030 -16.609819
-836.823936 245.973977 -16.583695
-837.503167 247.854924 -16.557570
-838.182398 249.735872 -16.531446
-838.861629 251.616819 -16.505322
-839.540860 253.497766 -16.479198
-840.220091 255.378714 -16.453073
-840.899322 257.259661 -16.426949
-841.578553 259.140608 -16.400825
-842.257784 261.021556 -16.374701
-842.937015 262.902503 -16.348576
-843.616246 264.783450 -16.322452
-844.295477 266.664397 -16.296328
-844.974708 268.545345 -16.270204
-845.653939 270.426292 -16.244079
-846.333170 272.307239 -16.217955
-847.012401 274.188187 -16.191831
-847.691632 276.069134 -16.165706
-848.370863 277.950081 -16.139582
-849.050094 279.831029 -16.113458
-849.729325 281.711976 -16.087334
-850.408556 283.592923 -16.061209
-851.087787 285.473871 -16.035085
-852.000000 288.000000 -16.000000
-852.000000 288.000000 -16.000000
-850.976737 286.282047 -15.960355
-849.953474 284.564095 -15.920710
-848.930211 282.846142 -15.881065
-847.906948 281.128190 -15.841420
-846.883685 279.410237 -15.801775
-845.860422 277.692285 -15.762130
-844.837159 275.974332 -15.722485
-843.813896 274.256379 -15.682840
-842.790633 272.538427 -15.643194
-841.767370 270.820474 -15.603549
-840.744107 269.102522 -15.563904
-839.720844 267.384569 -15.524259
-838.697581 265.666616 -15.484614
-837.674318 263.948664 -15.444969
-836.651055 262.230711 -15.405324
-835.627792 260.512759 -15.365679
-834.604529 258.794806 -15.326034
-833.581266 257.076854 -15.286389
-832.558003 255.358901 -15.246744
-831.534740 253.640948 -15.207099
-830.511477 251.922996 -15.167454
-829.488214 250.205043 -15.127809
-828.464951 248.487091 -15.088164
-827.441688 246.769138 -15.048519
-826.418425 245.051185 -15.008874
-825.395162 243.333233 -14.969228
-824.371899 241.615280 -14.929583
-823.348636 239.897328 -14.889938
-822.325373 238.179375 -14.850293
-821.302110 236.461423 -14.810648
-820.278847 234.743470 -14.771003
-819.255584 233.025517 -14.731358
-818.232321 231.307565 -14.691713
-817.209057 229.589612 -14.652068
-816.185794 227.871660 -14.612423
-815.162531 226.153707 -14.572778
-814.139268 224.435754 -14.533133
-813.116005 222.717802 -14.493488
-812.092742 220.999849 -14.453843
-811.069479 219.281897 -14.414198
-810.046216 217.563944 -14.374553
-809.022953 215.845992 -14.334907
-807.999690 214.128039 -14.295262
-806.976427 212.410086 -14.255617
-805.953164 210.692134 -14.215972
-804.929901 208.974181 -14.176327
-803.906638 207.256229 -14.136682
-802.883375 205.538276 -14.097037
-801.860112 203.820324 -14.057392
-800.836849 202.102371 -14.017747
-799.813586 200.384418 -13.978102
-798.790323 198.666466 -13.938457
-797.767060 196.948513 -13.898812
-796.743797 195.230561 -13.859167
-795.720534 193.512608 -13.819522
-794.697271 191.794655 -13.779877
-793.674008 190.076703 -13.740232
-792.650745 188.358750 -13.700587
-791.627482 186.640798 -13.660941
-790.604219 184.922845 -13.621296
-789.580956 183.204893 -13.581651
-788.557693 181.486940 -13.542006
-787.534430 179.768987 -13.502361
-786.511167 178.051035 -13.462716
-785.487904 176.333082 -13.423071
-784.464641 174.615130 -13.383426
-783.441378 172.897177 -13.343781
-782.418115 171.179224 -13.304136
-781.394852 169.461272 -13.264491
-780.371589 167.743319 -13.224846
-779.348326 166.025367 -13.185201
-778.325063 164.307414 -13.145556
-777.301800 162.589462 -13.105911
-776.278537 160.871509 -13.066266
-775.255274 159.153556 -13.026621
-774.232011 157.435604 -12.986975
-773.208748 155.717651 -12.947330
-772.185485 153.999699 -12.907685
-771.162222 152.281746 -12.868040
-770.138959 150.563793 -12.828395
-769.115696 148.845841 -12.788750
-768.092433 147.127888 -12.749105
-767.069170 145.409936 -12.709460
-766.045907 143.691983 -12.669815
-765.022644 141.974031 -12.630170
-763.999381 140.256078 -12.590525
-762.976118 138.538125 -12.550880
-761.952855 136.820173 -12.511235
-760.929592 135.102220 -12.471590
-759.906329 133.384268 -12.431945
-758.883066 131.666315 -12.392300
-757.859803 129.948363 -12.352655
-756.836540 128.230410 -12.313009
-755.813277 126.512457 -12.273364
-754.790014 124.794505 -12.233719
-753.766751 123.076552 -12.194074
-752.743488 121.358600 -12.154429
-751.720225 119.640647 -12.114784
-750.696962 117.922694 -12.075139
-749.673699 116.204742 -12.035494
-748.650436 114.486789 -11.995849
-747.627172 112.768837 -11.956204
-746.603909 111.050884 -11.916559
-745.580646 109.332932 -11.876914
-744.557383 107.614979 -11.837269
-743.534120 105.897026 -11.797624
-742.510857 104.179074 -11.757979
-741.487594 102.461121 -11.718334
-740.464331 100.743169 -11.678689
-739.441068 99.025216 -11.639043
-738.417805 97.307263 -11.599398
-737.394542 95.589311 -11.559753
-736.371279 93.871358 -11.520108
-735.348016 92.153406 -11.480463
-734.324753 90.435453 -11.440818
-733.301490 88.717501 -11.401173
-732.278227 86.999548 -11.361528
-731.254964 85.281595 -11.321883
-730.231701 83.563643 -11.282238
-729.208438 81.845690 -11.242593
-728.185175 80.127738 -11.202948
-727.161912 78.409785 -11.163303
-726.138649 76.691832 -11.123658
-725.115386 74.973880 -11.084013
-724.092123 73.255927 -11.044368
-723.068860 71.537975 -11.004722
-722.045597 69.820022 -10.965077
-721.022334 68.102070 -10.925432
-719.999071 66.384117 -10.885787
-718.975808 64.666164 -10.846142
-717.952545 62.948212 -10.806497
-716.929282 61.230259 -10.766852
-715.906019 59.512307 -10.727207
-714.882756 57.794354 -10.687562
-713.859493 56.076402 -10.647917
-712.836230 54.358449 -10.608272
-711.812967 52.640496 -10.568627
-710.789704 50.922544 -10.528982
-709.766441 49.204591 -10.489337
-708.743178 47.486639 -10.449692
-707.719915 45.768686 -10.410047
-706.696652 44.050733 -10.370402
-705.673389 42.332781 -10.330756
-704.650126 40.614828 -10.291111
-703.626863 38.896876 -10.251466
-702.603600 37.178923 -10.211821
-701.580337 35.460971 -10.172176
-700.557074 33.743018 -10.132531
-699.533811 32.025065 -10.092886
-698.510548 30.307113 -10.053241
-697.487285 28.589160 -10.013596
-696.464022 26.871208 -9.973951
-695.440759 25.153255 -9.934306
-694.417496 23.435302 -9.894661
-693.394233 21.717350 -9.855016
-692.370970 19.999397 -9.815371
-691.347707 18.281445 -9.775726
-690.324444 16.563492 -9.736081
-689.301181 14.845540 -9.696436
-688.277918 13.127587 -9.656790
-687.254655 11.409634 -9.617145
-686.231392 9.691682 -9.577500
-685.208129 7.973729 -9.537855
-684.184866 6.255777 -9.498210
-683.161603 4.537824 -9.458565
-682.138340 2.819871 -9.418920
-681.115077 1.101919 -9.379275
-680.091814 -0.616034 -9.339630
-679.068550 -2.333986 -9.299985
-678.045287 -4.051939 -9.260340
-677.022024 -5.769891 -9.220695
-675.998761 -7.487844 -9.181050
-674.975498 -9.205797 -9.141405
-673.952235 -10.923749 -9.101760
-672.928972 -12.641702 -9.062115
-671.905709 -14.359654 -9.022470
-670.882446 -16.077607 -8.982824
-669.859183 -17.795559 -8.943179
-668.835920 -19.513512 -8.903534
-667.812657 -21.231465 -8.863889
-666.789394 -22.949417 -8.824244
-665.766131 -24.667370 -8.784599
-664.742868 -26.385322 -8.744954
-663.719605 -28.103275 -8.705309
-662.696342 -29.821228 -8.665664
-661.673079 -31.539180 -8.626019
-660.649816 -33.257133 -8.586374
-659.626553 -34.975085 -8.546729
-658.603290 -36.693038 -8.507084
-657.580027 -38.410990 -8.467439
-656.556764 -40.128943 -8.427794
-655.533501 -41.846896 -8.388149
-654.510238 -43.564848 -8.348504
-653.486975 -45.282801 -8.308858
-652.463712 -47.000753 -8.269213
-651.440449 -48.718706 -8.229568
-650.417186 -50.436659 -8.189923
-649.393923 -52.154611 -8.150278
-648.370660 -53.872564 -8.110633
-647.347397 -55.590516 -8.070988
-646.324134 -57.308469 -8.031343
-645.300871 -59.026421 -7.991698
-644.277608 -60.744374 -7.952053
-643.254345 -62.462327 -7.912408
-642.231082 -64.180279 -7.872763
-641.207819 -65.898232 -7.833118
-640.184556 -67.616184 -7.793473
-639.161293 -69.334137 -7.753828
-638.138030 -71.052090 -7.714183
-637.114767 -72.770042 -7.674537
-636.091504 -74.487995 -7.634892
-635.068241 -76.205947 -7.595247
-634.044978 -77.923900 -7.555602
-633.021715 -79.641852 -7.515957
-631.998452 -81.359805 -7.476312
-630.975189 -83.077758 -7.436667
-629.951926 -84.795710 -7.397022
-628.928663 -86.513663 -7.357377
-627.905400 -88.231615 -7.317732
-626.882137 -89.949568 -7.278087
-625.858874 -91.667520 -7.238442
-624.835611 -93.385473 -7.198797
-623.812348 -95.103426 -7.159152
-622.789085 -96.821378 -7.119507
-621.765822 -98.539331 -7.079862
-620.742559 -100.257283 -7.040217
-619.719296 -101.975236 -7.000571
-618.696033 -103.693189 -6.960926
-617.672770 -105.411141 -6.921281
-616.649507 -107.129094 -6.881636
-615.626244 -108.847046 -6.841991
-614.602981 -110.564999 -6.802346
-613.579718 -112.282951 -6.762701
-612.556455 -114.000904 -6.723056
-611.533192 -115.718857 -6.683411
-610.509929 -117.436809 -6.643766
-609.486665 -119.154762 -6.604121
-608.463402 -120.872714 -6.564476
-607.440139 -122.590667 -6.524831
-606.416876 -124.308620 -6.485186
-605.393613 -126.026572 -6.445541
-604.370350 -127.744525 -6.405896
-603.347087 -129.462477 -6.366251
-602.323824 -131.180430 -6.326605
-601.300561 -132.898382 -6.286960
-600.277298 -134.616335 -6.247315
-599.254035 -136.334288 -6.207670
-598.230772 -138.052240 -6.168025
-597.207509 -139.770193 -6.128380
-596.184246 -141.488145 -6.088735
-595.160983 -143.206098 -6.049090
-594.137720 -144.924051 -6.009445
-593.114457 -146.642003 -5.969800
-592.091194 -148.359956 -5.930155
-591.067931 -150.077908 -5.890510
-590.044668 -151.795861 -5.850865
-589.021405 -153.513813 -5.811220
-587.998142 -155.231766 -5.771575
-586.974879 -156.949719 -5.731930
-585.951616 -158.667671 -5.692285
-584.928353 -160.385624 -5.652639
-583.905090 -162.103576 -5.612994
-582.881827 -163.821529 -5.573349
-581.858564 -165.539481 -5.533704
-580.835301 -167.257434 -5.494059
-579.812038 -168.975387 -5.454414
-578.788775 -170.693339 -5.414769
-577.765512 -172.411292 -5.375124
-576.742249 -174.129244 -5.335479
-575.718986 -175.847197 -5.295834
-574.695723 -177.565150 -5.256189
-573.672460 -179.283102 -5.216544
-572.649197 -181.001055 -5.176899
-571.625934 -182.719007 -5.137254
-570.602671 -184.436960 -5.097609
-569.579408 -186.154912 -5.057964
-568.556145 -187.872865 -5.018318
-567.532882 -189.590818 -4.978673
-566.509619 -191.308770 -4.939028
-565.486356 -193.026723 -4.899383
-564.463093 -194.744675 -4.859738
-563.439830 -196.462628 -4.820093
-562.416567 -198.180581 -4.780448
-561.393304 -199.898533 -4.740803
-560.370041 -201.616486 -4.701158
-559.346778 -203.334438 -4.661513
-558.323515 -205.052391 -4.621868
-557.300252 -206.770343 -4.582223
-556.276989 -208.488296 -4.542578
-555.253726 -210.206249 -4.502933
-554.230463 -211.924201 -4.463288
-553.207200 -213.642154 -4.423643
-552.183937 -215.360106 -4.383998
-551.160674 -217.078059 -4.344352
-550.137411 -218.796011 -4.304707
-549.114148 -220.513964 -4.265062
-548.090885 -222.231917 -4.225417
-547.067622 -223.949869 -4.185772
-546.044359 -225.667822 -4.146127
-545.021096 -227.385774 -4.106482
-543.997833 -229.103727 -4.066837
-542.974570 -230.821680 -4.027192
-541.951307 -232.539632 -3.987547
-540.928043 -234.257585 -3.947902
-539.904780 -235.975537 -3.908257
-538.881517 -237.693490 -3.868612
-537.858254 -239.411442 -3.828967
-536.834991 -241.129395 -3.789322
-535.811728 -242.847348 -3.749677
-534.788465 -244.565300 -3.710032
-533.765202 -246.283253 -3.670386
-532.741939 -248.001205 -3.630741
-531.718676 -249.719158 -3.591096
-530.695413 -251.437111 -3.551451
-529.672150 -253.155063 -3.511806
-528.648887 -254.873016 -3.472161
-527.625624 -256.590968 -3.432516
-526.602361 -258.308921 -3.392871
-525.579098 -260.026873 -3.353226
-524.555835 -261.744826 -3.313581
-523.532572 -263.462779 -3.273936
-522.509309 -265.180731 -3.234291
-521.486046 -266.898684 -3.194646
-520.462783 -268.616636 -3.155001
-519.439520 -270.334589 -3.115356
-518.416257 -272.052542 -3.075711
-517.392994 -273.770494 -3.036066
-516.369731 -275.488447 -2.996420
-515.346468 -277.206399 -2.956775
-514.323205 -278.924352 -2.917130
-513.299942 -280.642304 -2.877485
-512.276679 -282.360257 -2.837840
-511.253416 -284.078210 -2.798195
-510.230153 -285.796162 -2.758550
-509.206890 -287.514115 -2.718905
-508.183627 -289.232067 -2.679260
-507.160364 -290.950020 -2.639615
-506.137101 -292.667972 -2.599970
-505.113838 -294.385925 -2.560325
-504.090575 -296.103878 -2.520680
-503.067312 -297.821830 -2.481035
-502.044049 -299.539783 -2.441390
-501.020786 -301.257735 -2.401745
-499.997523 -302.975688 -2.362100
-498.974260 -304.693641 -2.322454
-497.950997 -306.411593 -2.282809
-496.927734 -308.129546 -2.243164
-495.904471 -309.847498 -2.203519
-494.881208 -311.565451 -2.163874
-493.857945 -313.283403 -2.124229
-492.834682 -315.001356 -2.084584
-491.811419 -316.719309 -2.044939
-490.788156 -318.437261 -2.005294
-489.764893 -320.155214 -1.965649
-488.741630 -321.873166 -1.926004
-487.718367 -323.591119 -1.886359
-486.695104 -325.309072 -1.846714
-485.671841 -327.027024 -1.807069
-484.648578 -328.744977 -1.767424
-483.625315 -330.462929 -1.727779
-482.602052 -332.180882 -1.688133
-481.578789 -333.898834 -1.648488
-480.555526 -335.616787 -1.608843
-479.532263 -337.334740 -1.569198
-478.509000 -339.052692 -1.529553
-477.485737 -340.770645 -1.489908
-476.462474 -342.488597 -1.450263
-475.439211 -344.206550 -1.410618
-474.415948 -345.924503 -1.370973
-473.392685 -347.642455 -1.331328
-472.369422 -349.360408 -1.291683
-471.346158 -351.078360 -1.252038
-470.322895 -352.796313 -1.212393
-469.299632 -354.514265 -1.172748
-468.276369 -356.232218 -1.133103
-467.253106 -357.950171 -1.093458
-466.229843 -359.668123 -1.053813
-465.206580 -361.386076 -1.014167
-464.183317 -363.104028 -0.974522
-463.160054 -364.821981 -0.934877
-462.136791 -366.539933 -0.895232
-461.113528 -368.257886 -0.855587
-460.090265 -369.975839 -0.815942
-459.067002 -371.693791 -0.776297
-458.043739 -373.411744 -0.736652
-457.020476 -375.129696 -0.697007
-455.997213 -376.847649 -0.657362
-454.973950 -378.565602 -0.617717
-453.950687 -380.283554 -0.578072
-452.927424 -382.001507 -0.538427
-451.904161 -383.719459 -0.498782
-450.880898 -385.437412 -0.459137
-449.857635 -387.155364 -0.419492
-448.834372 -388.873317 -0.379847
-447.811109 -390.591270 -0.340201
-446.787846 -392.309222 -0.300556
-445.764583 -394.027175 -0.260911
-444.741320 -395.745127 -0.221266
-443.718057 -397.463080 -0.181621
-442.694794 -399.181033 -0.141976
-441.671531 -400.898985 -0.102331
-440.648268 -402.616938 -0.062686
-439.030303 -405.333333 0.000000
-439.030303 -405.333333 0.000000
-439.418033 -407.287362 0.177306
-439.805762 -409.241391 0.354612
-440.193492 -411.195420 0.531918
-440.581221 -413.149448 0.709225
-440.968951 -415.103477 0.886531
-441.356680 -417.057506 1.063837
-441.744410 -419.011535 1.241143
-442.132139 -420.965563 1.418449
-442.519869 -422.919592 1.595755
-442.907598 -424.873621 1.773061
-443.295328 -426.827650 1.950368
-443.683058 -428.781678 2.127674
-444.070787 -430.735707 2.304980
-444.458517 -432.689736 2.482286
-444.846246 -434.643764 2.659592
-445.233976 -436.597793 2.836898
-445.621705 -438.551822 3.014205
-446.009435 -440.505851 3.191511
-446.397164 -442.459879 3.368817
-446.784894 -444.413908 3.546123
-447.172623 -446.367937 3.723429
-447.560353 -448.321966 3.900735
-447.948083 -450.275994 4.078041
-448.335812 -452.230023 4.255348
-448.723542 -454.184052 4.432654
-449.111271 -456.138081 4.609960
-449.499001 -458.092109 4.787266
-449.886730 -460.046138 4.964572
-450.274460 -462.000167 5.141878
-450.662189 -463.954196 5.319184
-451.049919 -465.908224 5.496491
-451.437648 -467.862253 5.673797
-451.825378 -469.816282 5.851103
-452.213108 -471.770311 6.028409
-452.600837 -473.724339 6.205715
-452.988567 -475.678368 6.383021
-453.376296 -477.632397 6.560327
-453.764026 -479.586426 6.737634
-454.151755 -481.540454 6.914940
-454.539485 -483.494483 7.092246
-454.927214 -485.448512 7.269552
-455.314944 -487.402541 7.446858
-455.702674 -489.356569 7.624164
-456.090403 -491.310598 7.801471
-456.478133 -493.264627 7.978777
-456.865862 -495.218656 8.156083
-457.253592 -497.172684 8.333389
-457.641321 -499.126713 8.510695
-458.029051 -501.080742 8.688001
-458.416780 -503.034770 8.865307
-458.804510 -504.988799 9.042614
-459.192239 -506.942828 9.219920
-459.579969 -508.896857 9.397226
-459.967699 -510.850885 9.574532
-460.355428 -512.804914 9.751838
-460.743158 -514.758943 9.929144
-461.130887 -516.712972 10.106450
-461.518617 -518.667000 10.283757
-461.906346 -520.621029 10.461063
-462.294076 -522.575058 10.638369
-462.681805 -524.529087 10.815675
-463.069535 -526.483115 10.992981
-463.457264 -528.437144 11.170287
-463.844994 -530.391173 11.347593
-464.232724 -532.345202 11.524900
-464.620453 -534.299230 11.702206
-465.008183 -536.253259 11.879512
-465.395912 -538.207288 12.056818
-465.783642 -540.161317 12.234124
-466.171371 -542.115345 12.411430
-466.559101 -544.069374 12.588736
-466.946830 -546.023403 12.766043
-467.334560 -547.977432 12.943349
-467.722289 -549.931460 13.120655
-468.110019 -551.885489 13.297961
-468.497749 -553.839518 13.475267
-468.885478 -555.793547 13.652573
-469.273208 -557.747575 13.829880
-469.660937 -559.701604 14.007186
-470.048667 -561.655633 14.184492
-470.436396 -563.609662 14.361798
-470.824126 -565.563690 14.539104
-471.211855 -567.517719 14.716410
-471.599585 -569.471748 14.893716
-471.987314 -571.425777 15.071023
-472.375044 -573.379805 15.248329
-472.894958 -576.000000 15.486082
-472.894958 -576.000000 15.486082
-472.431811 -577.942359 15.373228
-471.968665 -579.884718 15.260374
-471.505518 -581.827078 15.147521
-471.042372 -583.769437 15.034667
-470.579225 -585.711796 14.921813
-470.116079 -587.654155 14.808960
-469.652932 -589.596514 14.696106
-469.189785 -591.538874 14.583252
-468.726639 -593.481233 14.470398
-468.263492 -595.423592 14.357545
-467.800346 -597.365951 14.244691
-467.337199 -599.308310 14.131837
-466.874053 -601.250670 14.018984
-466.410906 -603.193029 13.906130
-465.947759 -605.135388 13.793276
-465.484613 -607.077747 13.680422
-465.021466 -609.020107 13.567569
-464.558320 -610.962466 13.454715
-464.095173 -612.904825 13.341861
-463.632026 -614.847184 13.229007
-463.168880 -616.789543 13.116154
-462.705733 -618.731903 13.003300
-462.242587 -620.674262 12.890446
-461.779440 -622.616621 12.777593
-461.316294 -624.558980 12.664739
-460.853147 -626.501339 12.551885
-460.390000 -628.443699 12.439031
-459.926854 -630.386058 12.326178
-459.463707 -632.328417 12.213324
-458.588235 -636.000000 12.000000
-458.588235 -636.000000 12.000000
-460.569508 -636.273051 12.000000
-462.550782 -636.546102 12.000000
-464.532055 -636.819153 12.000000
-466.513328 -637.092204 12.000000
-468.494601 -637.365255 12.000000
-470.475874 -637.638306 12.000000
-472.457147 -637.911357 12.000000
-474.438420 -638.184408 12.000000
-476.419693 -638.457459 12.000000
-478.400966 -638.730510 12.000000
-480.382240 -639.003561 12.000000
-482.363513 -639.276612 12.000000
-484.344786 -639.549663 12.000000
-486.326059 -639.822714 12.000000
-488.307332 -640.095765 12.000000
-490.288605 -640.368816 12.000000
-492.269878 -640.641867 12.000000
-494.251151 -640.914918 12.000000
-496.232424 -641.187969 12.000000
-498.213698 -641.461020 12.000000
-500.194971 -641.734071 12.000000
-502.176244 -642.007122 12.000000
-504.157517 -642.280173 12.000000
-506.138790 -642.553224 12.000000
-508.120063 -642.826275 12.000000
-510.101336 -643.099326 12.000000
-512.082609 -643.372377 12.000000
-514.063883 -643.645428 12.000000
-516.045156 -643.918479 12.000000
-518.026429 -644.191530 12.000000
-520.007702 -644.464581 12.000000
-521.988975 -644.737632 12.000000
-523.970248 -645.010683 12.000000
-525.951521 -645.283734 12.000000
-527.932794 -645.556785 12.000000
-529.914067 -645.829836 12.000000
-531.895341 -646.102887 12.000000
-533.876614 -646.375938 12.000000
-535.857887 -646.648989 12.000000
-537.839160 -646.922040 12.000000
-539.820433 -647.195091 12.000000
-541.801706 -647.468142 12.000000
-543.782979 -647.741193 12.000000
-545.764252 -648.014244 12.000000
-547.745525 -648.287295 12.000000
-549.726799 -648.560346 12.000000
-551.708072 -648.833397 12.000000
-553.689345 -649.106448 12.000000
-555.670618 -649.379499 12.000000
-557.651891 -649.652550 12.000000
-559.633164 -649.925601 12.000000
-561.614437 -650.198652 12.000000
-563.595710 -650.471703 12.000000
-565.576983 -650.744754 12.000000
-567.558257 -651.017805 12.000000
-569.539530 -651.290856 12.000000
-571.520803 -651.563907 12.000000
-573.502076 -651.836958 12.000000
-575.483349 -652.110009 12.000000
-577.464622 -652.383060 12.000000
-579.445895 -652.656111 12.000000
-581.427168 -652.929162 12.000000
-583.408442 -653.202212 12.000000
-585.389715 -653.475263 12.000000
-587.370988 -653.748314 12.000000
-589.352261 -654.021365 12.000000
-591.333534 -654.294416 12.000000
-593.314807 -654.567467 12.000000
-595.296080 -654.840518 12.000000
-597.277353 -655.113569 12.000000
-599.258626 -655.386620 12.000000
-601.239900 -655.659671 12.000000
-603.221173 -655.932722 12.000000
-605.202446 -656.205773 12.000000
-607.183719 -656.478824 12.000000
-609.164992 -656.751875 12.000000
-611.146265 -657.024926 12.000000
-613.127538 -657.297977 12.000000
-615.108811 -657.571028 12.000000
-617.090084 -657.844079 12.000000
-619.071358 -658.117130 12.000000
-621.052631 -658.390181 12.000000
-623.033904 -658.663232 12.000000
-625.015177 -658.936283 12.000000
-626.996450 -659.209334 12.000000
-628.977723 -659.482385 12.000000
-630.958996 -659.755436 12.000000
-632.940269 -660.028487 12.000000
-634.921543 -660.301538 12.000000
-636.902816 -660.574589 12.000000
-638.884089 -660.847640 12.000000
-640.865362 -661.120691 12.000000
-642.846635 -661.393742 12.000000
-644.827908 -661.666793 12.000000
-646.809181 -661.939844 12.000000
-648.790454 -662.212895 12.000000
-650.771727 -662.485946 12.000000
-652.753001 -662.758997 12.000000
-654.734274 -663.032048 12.000000
-656.715547 -663.305099 12.000000
-658.696820 -663.578150 12.000000
-660.678093 -663.851201 12.000000
-662.659366 -664.124252 12.000000
-664.640639 -664.397303 12.000000
-666.621912 -664.670354 12.000000
-668.603185 -664.943405 12.000000
-670.584459 -665.216456 12.000000
-672.565732 -665.489507 12.000000
-674.547005 -665.762558 12.000000
-676.528278 -666.035609 12.000000
-678.509551 -666.308660 12.000000
-680.490824 -666.581711 12.000000
-682.472097 -666.854762 12.000000
-684.453370 -667.127813 12.000000
-686.434644 -667.400864 12.000000
-688.415917 -667.673915 12.000000
-690.397190 -667.946966 12.000000
-692.378463 -668.220017 12.000000
-694.359736 -668.493068 12.000000
-696.341009 -668.766119 12.000000
-698.322282 -669.039170 12.000000
-700.303555 -669.312221 12.000000
-702.284828 -669.585272 12.000000
-704.266102 -669.858323 12.000000
-706.247375 -670.131374 12.000000
-708.228648 -670.404425 12.000000
-710.209921 -670.677476 12.000000
-712.191194 -670.950527 12.000000
-714.172467 -671.223578 12.000000
-716.153740 -671.496629 12.000000
-718.135013 -671.769680 12.000000
-720.116286 -672.042731 12.000000
-722.097560 -672.315782 12.000000
-724.078833 -672.588833 12.000000
-726.060106 -672.861884 12.000000
-728.041379 -673.134935 12.000000
-730.022652 -673.407986 12.000000
-732.003925 -673.681037 12.000000
-733.985198 -673.954088 12.000000
-735.966471 -674.227139 12.000000
-737.947744 -674.500190 12.000000
-739.929018 -674.773241 12.000000
-741.910291 -675.046292 12.000000
-743.891564 -675.319343 12.000000
-745.872837 -675.592394 12.000000
-747.854110 -675.865445 12.000000
-749.835383 -676.138496 12.000000
-751.816656 -676.411547 12.000000
-753.797929 -676.684598 12.000000
-755.779203 -676.957649 12.000000
-757.760476 -677.230700 12.000000
-759.741749 -677.503751 12.000000
-761.723022 -677.776802 12.000000
-763.704295 -678.049853 12.000000
-765.685568 -678.322904 12.000000
-767.666841 -678.595955 12.000000
-769.648114 -678.869006 12.000000
-771.629387 -679.142057 12.000000
-773.610661 -679.415108 12.000000
-775.591934 -679.688159 12.000000
-777.573207 -679.961210 12.000000
-779.554480 -680.234261 12.000000
-781.535753 -680.507312 12.000000
-783.517026 -680.780363 12.000000
-785.498299 -681.053414 12.000000
-787.479572 -681.326465 12.000000
-789.460845 -681.599516 12.000000
-791.442119 -681.872567 12.000000
-793.423392 -682.145618 12.000000
-795.404665 -682.418669 12.000000
-797.385938 -682.691720 12.000000
-799.367211 -682.964771 12.000000
-801.348484 -683.237822 12.000000
-803.329757 -683.510873 12.000000
-805.311030 -683.783924 12.000000
-807.292304 -684.056975 12.000000
-809.273577 -684.330026 12.000000
-811.254850 -684.603077 12.000000
-813.236123 -684.876128 12.000000
-815.217396 -685.149179 12.000000
-817.198669 -685.422230 12.000000
-819.179942 -685.695281 12.000000
-821.161215 -685.968332 12.000000
-823.142488 -686.241383 12.000000
-825.123762 -686.514434 12.000000
-827.105035 -686.787485 12.000000
-829.086308 -687.060536 12.000000
-831.067581 -687.333586 12.000000
-833.048854 -687.606637 12.000000
-835.030127 -687.879688 12.000000
-837.011400 -688.152739 12.000000
-838.992673 -688.425790 12.000000
-840.973946 -688.698841 12.000000
-842.955220 -688.971892 12.000000
-844.936493 -689.244943 12.000000
-846.917766 -689.517994 12.000000
-848.899039 -689.791045 12.000000
-850.880312 -690.064096 12.000000
-852.861585 -690.337147 12.000000
-854.842858 -690.610198 12.000000
-856.824131 -690.883249 12.000000
-858.805405 -691.156300 12.000000
-860.786678 -691.429351 12.000000
-862.767951 -691.702402 12.000000
-864.749224 -691.975453 12.000000
-866.730497 -692.248504 12.000000
-868.711770 -692.521555 12.000000
-870.693043 -692.794606 12.000000
-872.674316 -693.067657 12.000000
-874.655589 -693.340708 12.000000
-876.636863 -693.613759 12.000000
-878.618136 -693.886810 12.000000
-880.599409 -694.159861 12.000000
-882.580682 -694.432912 12.000000
-884.561955 -694.705963 12.000000
-886.543228 -694.979014 12.000000
-888.524501 -695.252065 12.000000
-890.505774 -695.525116 12.000000
-892.487047 -695.798167 12.000000
-894.468321 -696.071218 12.000000
-896.449594 -696.344269 12.000000
-898.430867 -696.617320 12.000000
-900.412140 -696.890371 12.000000
-902.393413 -697.163422 12.000000
-904.374686 -697.436473 12.000000
-906.355959 -697.709524 12.000000
-908.337232 -697.982575 12.000000
-910.318505 -698.255626 12.000000
-912.299779 -698.528677 12.000000
-914.281052 -698.801728 12.000000
-916.262325 -699.074779 12.000000
-918.243598 -699.347830 12.000000
-920.224871 -699.620881 12.000000
-922.206144 -699.893932 12.000000
-924.187417 -700.166983 12.000000
-926.168690 -700.440034 12.000000
-928.149964 -700.713085 12.000000
-930.131237 -700.986136 12.000000
-932.112510 -701.259187 12.000000
-934.093783 -701.532238 12.000000
-936.075056 -701.805289 12.000000
-938.056329 -702.078340 12.000000
-940.037602 -702.351391 12.000000
-942.018875 -702.624442 12.000000
-944.000148 -702.897493 12.000000
-945.981422 -703.170544 12.000000
-947.962695 -703.443595 12.000000
-949.943968 -703.716646 12.000000
-952.000000 -704.000000 12.000000
-952.000000 -704.000000 12.000000
-952.000000 -704.000000 10.000000
-952.000000 -704.000000 8.000000
-952.000000 -704.000000 6.000000
-952.000000 -704.000000 4.000000
-952.000000 -704.000000 2.000000
-952.000000 -704.000000 0.000000
-952.000000 -704.000000 -2.000000
-952.000000 -704.000000 -4.000000
-952.000000 -704.000000 -8.000000
-952.000000 -704.000000 -8.000000
-950.176638 -704.821797 -8.000000
-948.353276 -705.643594 -8.000000
-946.529913 -706.465391 -8.000000
-944.706551 -707.287188 -8.000000
-942.883189 -708.108985 -8.000000
-941.059827 -708.930782 -8.000000
-939.236465 -709.752579 -8.000000
-937.413103 -710.574376 -8.000000
-935.589740 -711.396173 -8.000000
-933.766378 -712.217970 -8.000000
-931.943016 -713.039767 -8.000000
-930.119654 -713.861564 -8.000000
-928.296292 -714.683361 -8.000000
-926.472930 -715.505159 -8.000000
-924.649567 -716.326956 -8.000000
-922.826205 -717.148753 -8.000000
-921.002843 -717.970550 -8.000000
-919.179481 -718.792347 -8.000000
-917.356119 -719.614144 -8.000000
-915.532756 -720.435941 -8.000000
-913.709394 -721.257738 -8.000000
-911.886032 -722.079535 -8.000000
-910.062670 -722.901332 -8.000000
-908.239308 -723.723129 -8.000000
-906.415946 -724.544926 -8.000000
-904.592583 -725.366723 -8.000000
-902.769221 -726.188520 -8.000000
-900.945859 -727.010317 -8.000000
-899.122497 -727.832114 -8.000000
-897.299135 -728.653911 -8.000000
-895.475773 -729.475708 -8.000000
-893.652410 -730.297505 -8.000000
-891.829048 -731.119302 -8.000000
-890.005686 -731.941099 -8.000000
-888.182324 -732.762896 -8.000000
-886.358962 -733.584693 -8.000000
-884.535599 -734.406490 -8.000000
-882.712237 -735.228287 -8.000000
-880.888875 -736.050084 -8.000000
-879.065513 -736.871882 -8.000000
-877.242151 -737.693679 -8.000000
-875.418789 -738.515476 -8.000000
-873.595426 -739.337273 -8.000000
-871.772064 -740.159070 -8.000000
-869.948702 -740.980867 -8.000000
-868.125340 -741.802664 -8.000000
-866.301978 -742.624461 -8.000000
-864.478615 -743.446258 -8.000000
-862.655253 -744.268055 -8.000000
-860.831891 -745.089852 -8.000000
-859.008529 -745.911649 -8.000000
-857.185167 -746.733446 -8.000000
-855.361805 -747.555243 -8.000000
-853.538442 -748.377040 -8.000000
-851.715080 -749.198837 -8.000000
-849.891718 -750.020634 -8.000000
-848.068356 -750.842431 -8.000000
-846.244994 -751.664228 -8.000000
-844.421632 -752.486025 -8.000000
-842.598269 -753.307822 -8.000000
-840.774907 -754.129619 -8.000000
-838.951545 -754.951416 -8.000000
-837.128183 -755.773213 -8.000000
-835.304821 -756.595010 -8.000000
-833.481458 -757.416807 -8.000000
-831.658096 -758.238604 -8.000000
-829.834734 -759.060402 -8.000000
-828.011372 -759.882199 -8.000000
-826.188010 -760.703996 -8.000000
-824.364648 -761.525793 -8.000000
-822.541285 -762.347590 -8.000000
-820.717923 -763.169387 -8.000000
-818.894561 -763.991184 -8.000000
-817.071199 -764.812981 -8.000000
-815.247837 -765.634778 -8.000000
-813.424475 -766.456575 -8.000000
-811.601112 -767.278372 -8.000000
-809.777750 -768.100169 -8.000000
-807.954388 -768.921966 -8.000000
-806.131026 -769.743763 -8.000000
-804.307664 -770.565560 -8.000000
-802.484301 -771.387357 -8.000000
-800.660939 -772.209154 -8.000000
-798.837577 -773.030951 -8.000000
-797.014215 -773.852748 -8.000000
-795.190853 -774.674545 -8.000000
-793.367491 -775.496342 -8.000000
-791.544128 -776.318139 -8.000000
-789.720766 -777.139936 -8.000000
-787.897404 -777.961733 -8.000000
-786.074042 -778.783530 -8.000000
-784.250680 -779.605327 -8.000000
-782.427318 -780.427124 -8.000000
-780.603955 -781.248922 -8.000000
-778.780593 -782.070719 -8.000000
-776.957231 -782.892516 -8.000000
-775.133869 -783.714313 -8.000000
-773.310507 -784.536110 -8.000000
-771.487144 -785.357907 -8.000000
-769.663782 -786.179704 -8.000000
-767.840420 -787.001501 -8.000000
-766.017058 -787.823298 -8.000000
-764.193696 -788.645095 -8.000000
-762.370334 -789.466892 -8.000000
-760.546971 -790.288689 -8.000000
-758.723609 -791.110486 -8.000000
